ply
format ascii 1.0
element vertex 1248
property float x
property float y
property float z
property uchar red
property uchar green
property uchar blue
end_header
-7.21683 -48.798 30.0735  255 255 255
-8.96288 -48.6664 28.5393  255 255 255
-18.2064 -45.942 27.7304  255 255 255
-6.8435 -49.9886 29.8983  255 255 255
-7.10577 -50.208 29.4788  255 255 255
-17.5079 -47.0694 27.2682  255 255 255
-18.3919 -46.83 26.8393  255 255 255
-17.7864 -47.0347 26.9578  255 255 255
-17.7864 -47.0347 26.9578  255 255 255
13.9514 -59.27 33.4003  255 255 255
-30.8041 -45.7815 23.1599  255 255 255
9.43032 -59.8405 34.3186  255 255 255
8.23742 -59.6349 34.305  255 255 255
-11.4296 -53.7552 31.2209  255 255 255
-41.6799 -44.3805 20.7333  255 255 255
-36.8482 -47.2414 23.7  255 255 255
7.96942 -63.2045 38.1883  255 255 255
-41.532 -46.4982 22.9689  255 255 255
-37.8628 -48.1032 24.3749  255 255 255
13.1112 -66.0065 41.2005  255 255 255
-38.7554 -48.4106 24.8519  255 255 255
-2.1654 -61.1409 36.8172  255 255 255
9.64525 -65.3608 40.9675  255 255 255
7.41578 -65.3858 41.2409  255 255 255
1.54456 -63.6923 39.0613  255 255 255
8.00353 -66.0353 41.4991  255 255 255
-8.92813 -60.2536 36.1609  255 255 255
-1.29456 -63.6838 39.4614  255 255 255
-0.421524 -64.1813 39.7619  255 255 255
-2.64469 -63.7758 39.9785  255 255 255
-2.54488 -63.8811 39.716  255 255 255
5.96924 -66.917 42.7412  255 255 255
4.16865 -66.5666 42.4632  255 255 255
-6.55762 -62.9749 39.0842  255 255 255
3.70124 -66.6407 42.5789  255 255 255
-6.30401 -63.2664 39.2492  255 255 255
-27.997 -56.1735 32.9077  255 255 255
-15.5785 -60.4058 37.0194  255 255 255
4.47536 -67.408 43.405  255 255 255
-2.74831 -64.9322 41.0248  255 255 255
-36.9145 -53.2732 30.3508  255 255 255
-29.8242 -56.1145 33.3837  255 255 255
-28.9405 -56.6386 33.8362  255 255 255
-28.4005 -56.9519 33.9543  255 255 255
0.0425999 -66.9642 43.0536  255 255 255
-7.70639 -64.6588 40.9554  255 255 255
-18.742 -60.9118 37.4325  255 255 255
4.84658 -69.313 45.5251  255 255 255
-17.926 -64.2841 41.105  255 255 255
-14.9521 -65.3092 42.208  255 255 255
-23.9661 -62.5818 39.7862  255 255 255
-34.2558 -61.7395 39.3268  255 255 255
-5.84195 85.8024 -40.4497  255 255 255
62.0419 98.1113 -82.8148  255 255 255
60.37 96.1415 -80.4278  255 255 255
-14.9599 82.8721 -35.7222  255 255 255
50.8962 57.022 -8.74886  255 255 255
11.5478 86.2074 -53.4984  255 255 255
55.1318 52.2223 -3.18456  255 255 255
66.086 93.9379 -87.1716  255 255 255
97.3717 98.8428 -107.448  255 255 255
97.3717 98.8428 -107.448  255 255 255
39.6164 89.2088 -71.7871  255 255 255
55.6963 50.607 -2.8138  255 255 255
95.5 97.2107 -106.937  255 255 255
29.6843 83.3494 -68.5842  255 255 255
-15.7874 76.1357 -40.8493  255 255 255
-7.0373 77.1823 -46.9654  255 255 255
-14.7103 75.3126 -42.1001  255 255 255
81.431 88.0031 -103.506  255 255 255
50.8957 34.8583 16.8437  255 255 255
41.9183 82.563 -79.1767  255 255 255
41.9183 82.563 -79.1767  255 255 255
54.7668 84.1652 -87.616  255 255 255
77.8208 87.1667 -102.681  255 255 255
56.0108 83.9042 -88.4648  255 255 255
54.8254 83.6143 -88.3364  255 255 255
54.5828 30.9893 21.3779  255 255 255
57.0093 28.0562 26.0933  255 255 255
57.7625 27.1238 26.1728  255 255 255
57.2004 41.369 -4.46462  255 255 255
29.3887 78.773 -73.8229  255 255 255
51.4227 46.1178 -12.8308  255 255 255
52.8999 30.1878 18.7226  255 255 255
-18.2793 71.247 -43.263  255 255 255
-5.17104 72.7484 -52.8664  255 255 255
51.632 79.2062 -89.9428  255 255 255
-2.0909 72.1972 -55.1224  255 255 255
49.6485 31.753 12.6822  255 255 255
56.6698 78.4486 -94.0755  255 255 255
-2.84952 70.1257 -51.3215  255 255 255
54.9401 39.8529 -9.77923  255 255 255
55.5059 39.2365 -8.65429  255 255 255
55.5059 39.2365 -8.65429  255 255 255
27.581 74.6906 -76.6346  255 255 255
18.4755 72.737 -70.1367  255 255 255
18.4755 72.737 -70.1367  255 255 255
49.6445 75.4494 -89.8833  255 255 255
56.106 76.1706 -94.2238  255 255 255
42.9756 75.3496 -87.087  255 255 255
53.7013 27.0521 16.7335  255 255 255
53.5297 75.7245 -93.6344  255 255 255
53.792 75.9112 -94.1411  255 255 255
43.3148 74.6999 -87.2069  255 255 255
30.7924 73.1422 -79.4283  255 255 255
-0.487785 69.3539 -58.9197  255 255 255
-0.481926 69.3585 -58.9316  255 255 255
-21.0803 66.9436 -44.653  255 255 255
44.1205 72.5213 -87.9813  255 255 255
53.2052 24.9863 15.9308  255 255 255
7.08823 68.2108 -64.4869  255 255 255
23.0024 70.2106 -76.2892  255 255 255
-9.95387 66.7861 -54.0045  255 255 255
47.0375 71.8367 -91.9165  255 255 255
52.9899 24.9722 14.9114  255 255 255
2.22496 66.6442 -62.2296  255 255 255
13.6035 65.7529 -71.7945  255 255 255
10.724 65.9103 -71.143  255 255 255
17.0699 65.7973 -74.0957  255 255 255
53.3785 20.9377 13.7916  255 255 255
20.6295 63.7591 -76.7541  255 255 255
21.1755 63.4731 -77.1699  255 255 255
49.4662 36.1888 -25.7143  255 255 255
-8.04598 61.6329 -60.3364  255 255 255
26.8246 64.1193 -84.8497  255 255 255
13.8698 61.2143 -73.6407  255 255 255
23.4294 62.0139 -84.4961  255 255 255
24.8276 61.2839 -85.0181  255 255 255
0.903505 59.7418 -68.145  255 255 255
-0.237741 59.0232 -66.8697  255 255 255
51.4544 19.258 8.01992  255 255 255
56.5905 26.8414 -15.4637  255 255 255
23.0469 59.962 -85.6991  255 255 255
-17.6961 57.0115 -55.1723  255 255 255
50.2296 19.8335 4.98529  255 255 255
51.5588 18.629 7.16405  255 255 255
52.3426 18.0127 8.33107  255 255 255
56.9633 13.0478 16.3366  255 255 255
51.1062 17.6387 6.09439  255 255 255
52.8861 14.5052 7.86157  255 255 255
49.8128 16.9246 2.54042  255 255 255
-16.0899 52.938 -60.8714  255 255 255
-17.6646 52.5223 -59.8989  255 255 255
54.7173 22.2116 -20.7669  255 255 255
55.4206 21.979 -21.08  255 255 255
-21.4775 51.246 -58.1814  255 255 255
49.3779 26.5531 -33.0062  255 255 255
-13.5361 50.6645 -65.5774  255 255 255
-13.5361 50.6645 -65.5774  255 255 255
52.3296 11.6229 4.965  255 255 255
48.5055 14.0461 -1.72442  255 255 255
45.7368 27.5626 -41.5115  255 255 255
52.7626 10.2321 4.21382  255 255 255
52.5517 10.1697 4.49427  255 255 255
49.3389 12.0501 -1.22998  255 255 255
47.2112 23.0817 -39.1097  255 255 255
53.9862 16.4594 -28.8487  255 255 255
54.9773 5.05927 5.87704  255 255 255
-18.8584 43.3566 -64.8239  255 255 255
55.5719 4.05914 6.48237  255 255 255
45.991 21.3588 -44.082  255 255 255
45.8007 20.9761 -44.6007  255 255 255
49.2298 7.7589 -5.05363  255 255 255
54.192 4.14441 3.32385  255 255 255
49.4713 7.10993 -4.8109  255 255 255
56.9263 1.27197 8.38726  255 255 255
50.4581 5.37527 -3.93947  255 255 255
-11.2477 40.1879 -76.0472  255 255 255
-27.1359 40.1271 -64.583  255 255 255
4.63206 33.9203 -70.1373  255 255 255
14.6241 29.73 -67.2974  255 255 255
-8.74882 36.9956 -73.0621  255 255 255
0.961303 32.0279 -68.7823  255 255 255
10.7531 25.4375 -62.4523  255 255 255
55.6411 -2.69377 2.21807  255 255 255
2.56987 26.2745 -60.8569  255 255 255
11.4319 23.8646 -60.3358  255 255 255
58.862 -5.66661 7.58327  255 255 255
9.98713 23.3702 -58.6103  255 255 255
8.81224 23.9 -60.0113  255 255 255
54.1782 -2.86414 -1.14601  255 255 255
-2.87511 26.8773 -62.8946  255 255 255
57.0982 -6.23428 3.06516  255 255 255
48.2752 -0.181805 -12.8227  255 255 255
-2.87608 24.1501 -59.6195  255 255 255
47.2861 0.372893 -14.7344  255 255 255
55.0062 -5.15992 -0.855076  255 255 255
7.06466 -0.652559 24.7443  255 255 255
7.32797 -0.773095 24.932  255 255 255
51.4585 -4.45903 -7.7982  255 255 255
8.11177 -3.38314 28.7716  255 255 255
-5.85359 18.5976 -53.18  255 255 255
51.0374 -6.04004 -10.1881  255 255 255
59.7239 -12.2433 4.78201  255 255 255
58.9125 -11.6931 3.28875  255 255 255
10.8306 -5.36359 28.3916  255 255 255
50.2111 -7.30348 -15.0258  255 255 255
-16.6915 18.0753 -51.4447  255 255 255
-10.538 -0.166323 25.7052  255 255 255
55.9636 -12.8986 -4.73752  255 255 255
3.32061 -6.66948 32.5853  255 255 255
48.1768 -8.18825 -19.3027  255 255 255
4.03347 -7.60107 33.4195  255 255 255
57.3905 -14.7537 -2.95853  255 255 255
25.6197 -9.37462 11.2434  255 255 255
56.3696 -14.7866 -5.15633  255 255 255
10.9132 -10.315 31.4435  255 255 255
57.8873 -16.7008 -2.67049  255 255 255
-13.5478 -3.25858 26.3839  255 255 255
-15.598 10.1574 -42.2329  255 255 255
58.595 -17.8491 -1.27184  255 255 255
5.4069 -10.0747 33.9292  255 255 255
59.2912 -18.5922 -0.846959  255 255 255
-12.1835 -5.74595 29.527  255 255 255
5.85186 -11.8993 34.4846  255 255 255
-1.34345 -10.1685 35.484  255 255 255
59.9864 -21.781 -1.80052  255 255 255
-1.22481 -11.3359 35.8465  255 255 255
59.9211 -22.2152 -1.47042  255 255 255
-4.65617 -10.8801 35.1315  255 255 255
-20.0655 -3.62778 13.517  255 255 255
0.541167 -13.2792 35.9689  255 255 255
-23.3713 4.43442 -36.0508  255 255 255
-11.7047 -9.53566 31.877  255 255 255
23.8374 -19.1876 23.148  255 255 255
10.5217 -16.7268 31.6929  255 255 255
-24.749 -4.63767 11.1026  255 255 255
10.9154 -17.8654 31.3993  255 255 255
23.012 -20.4994 24.5982  255 255 255
-7.2508 -13.3492 35.2436  255 255 255
-15.9116 -10.1854 28.825  255 255 255
-8.19694 -13.5936 34.9598  255 255 255
-8.06306 -13.8133 35.3416  255 255 255
12.0573 -19.6023 30.4881  255 255 255
-25.7851 -0.742528 -29.7451  255 255 255
-25.7851 -0.742528 -29.7451  255 255 255
-24.8499 -7.18519 13.2953  255 255 255
-24.534 -7.7223 14.4889  255 255 255
-24.3098 -2.54403 -27.6471  255 255 255
8.5762 -20.1709 33.1862  255 255 255
20.7359 -23.3978 28.4334  255 255 255
-17.0686 -12.4115 28.5735  255 255 255
8.0737 -20.4289 33.5667  255 255 255
-21.8326 -10.1568 21.1617  255 255 255
-7.05652 -16.3218 35.4375  255 255 255
1.90398 -19.0307 36.1116  255 255 255
-18.7107 -11.9107 25.8112  255 255 255
-18.6752 -12.4238 26.2376  255 255 255
13.7008 -22.8029 32.5925  255 255 255
-1.76515 -19.5854 36.0611  255 255 255
-14.1453 -15.6339 31.6845  255 255 255
-15.7691 -15.1322 30.2712  255 255 255
-8.46589 -18.0714 34.5939  255 255 255
-11.3077 -17.8394 33.0238  255 255 255
-21.1407 -14.1647 25.8713  255 255 255
-1.67906 -21.0415 35.5517  255 255 255
-9.96378 -18.5756 34.2046  255 255 255
-15.3511 -16.6444 30.8018  255 255 255
-21.4421 -14.9656 26.8002  255 255 255
-20.2843 -15.3414 27.2101  255 255 255
-15.5162 -17.1255 30.5655  255 255 255
-23.7064 -13.8925 22.5931  255 255 255
-12.9821 -18.2796 32.3479  255 255 255
13.2268 -28.4044 34.5989  255 255 255
-16.4993 -19.9116 32.2479  255 255 255
-25.8688 -16.7462 24.7158  255 255 255
-3.16652 -25.2109 36.9957  255 255 255
-3.90626 -25.1082 36.9565  255 255 255
-29.0298 -17.0758 24.8896  255 255 255
-8.63022 -24.2393 36.3841  255 255 255
-25.2126 -18.5605 26.7022  255 255 255
-6.34145 -25.9565 36.279  255 255 255
-27.1278 -19.753 25.1289  255 255 255
-1.13055 -30.146 37.7924  255 255 255
-26.444 -21.7475 25.2955  255 255 255
-24.422 -23.0388 31.9203  255 255 255
-6.49453 -30.2691 38.3585  255 255 255
-6.45403 -30.2671 38.2199  255 255 255
-1.9262 -31.8042 38.5658  255 255 255
2.31068 -34.0734 36.4445  255 255 255
4.26813 -35.1593 35.1108  255 255 255
-17.154 -28.2014 34.5962  255 255 255
-18.3031 -29.6618 32.0409  255 255 255
-10.0091 -32.8278 35.5232  255 255 255
-13.862 -32.8834 33.4881  255 255 255
-5.45345 -35.9404 36.0454  255 255 255
4.89246 -39.7966 31.0178  255 255 255
1.32137 -38.732 32.2662  255 255 255
-14.5472 -34.1942 32.0097  255 255 255
0.624269 -39.3712 32.3776  255 255 255
0.599358 -39.3574 32.4334  255 255 255
-20.6841 -33.5409 27.9743  255 255 255
-49.5376 -24.9229 -1.11155  255 255 255
-21.2282 -34.119 25.3129  255 255 255
-11.2496 -37.53 31.3665  255 255 255
-23.2683 -35.4113 23.1707  255 255 255
-18.1791 -37.3012 26.3948  255 255 255
-4.52273 -42.8739 30.2603  255 255 255
-23.3598 -36.8039 22.6935  255 255 255
-14.1226 -40.1427 28.2479  255 255 255
-45.1775 -33.8654 9.0795  255 255 255
-47.2426 -34.1382 8.89144  255 255 255
-47.3708 -34.3259 9.40668  255 255 255
-7.83956 -50.0554 29.0509  255 255 255
-9.84142 -51.1253 29.9826  255 255 255
-42.9375 -40.7117 16.2452  255 255 255
-41.7145 -41.3456 17.3298  255 255 255
-47.3214 -40.5913 16.5759  255 255 255
4.58146 -58.7964 33.6408  255 255 255
-37.8445 -45.3719 21.4348  255 255 255
15.31 -63.9692 38.7265  255 255 255
-33.8362 -48.0859 24.4919  255 255 255
-33.6968 -48.4621 24.3977  255 255 255
-42.0489 -46.0322 22.7652  255 255 255
-42.8313 -46.352 22.8271  255 255 255
4.01278 -63.9164 39.6175  255 255 255
-27.7351 -53.3317 30.0333  255 255 255
-23.9702 -56.7459 33.8149  255 255 255
-23.9702 -56.7459 33.8149  255 255 255
9.42707 -68.7733 44.4472  255 255 255
6.46134 -68.2137 44.1575  255 255 255
2.44551 -67.1298 43.1131  255 255 255
-36.1116 -54.0457 31.1316  255 255 255
-8.77657 -64.1389 40.935  255 255 255
-35.2853 -55.2267 32.398  255 255 255
-32.6444 -57.6395 34.4586  255 255 255
-38.5567 -56.3984 33.9627  255 255 255
-20.4503 -63.3243 40.3003  255 255 255
-35.9125 -58.4271 35.8272  255 255 255
-24.3748 -63.1779 40.2634  255 255 255
-24.4218 -63.0822 40.4398  255 255 255
-25.1806 -62.9811 40.552  255 255 255
-25.1276 -63.0902 40.334  255 255 255
-33.5248 -61.0432 38.5614  255 255 255
31.9472 91.8993 -63.554  255 255 255
43.6709 93.9456 -70.6529  255 255 255
50.0997 58.4165 -10.4189  255 255 255
45.3695 91.9271 -73.5096  255 255 255
45.3695 91.9271 -73.5096  255 255 255
67.3247 94.9512 -86.3045  255 255 255
66.8885 94.0774 -87.279  255 255 255
96.3084 98.3167 -107.357  255 255 255
37.8665 87.4488 -72.0286  255 255 255
54.0445 51.1478 -7.41828  255 255 255
55.9813 89.1565 -83.8947  255 255 255
57.1541 89.121 -85.2615  255 255 255
57.2563 87.8322 -85.9335  255 255 255
78.3183 90.0782 -100.337  255 255 255
51.9171 34.1578 18.8234  255 255 255
12.4964 78.8558 -60.285  255 255 255
73.217 86.4048 -99.9068  255 255 255
58.3713 83.7956 -89.6455  255 255 255
49.5524 35.1144 14.4684  255 255 255
44.4516 81.8621 -83.0083  255 255 255
51.7996 47.2058 -13.6725  255 255 255
56.3494 28.0243 24.9577  255 255 255
56.3494 28.0243 24.9577  255 255 255
46.6947 79.8923 -85.4936  255 255 255
60.7905 79.6512 -94.3913  255 255 255
55.7875 25.9808 23.099  255 255 255
32.4725 76.1429 -78.912  255 255 255
48.5182 45.6635 -23.369  255 255 255
14.3551 70.7425 -68.1646  255 255 255
-13.9496 66.9012 -50.4741  255 255 255
24.1056 67.5108 -77.7899  255 255 255
24.1835 67.5723 -77.9894  255 255 255
54.7705 21.693 17.3724  255 255 255
49.9661 38.0168 -24.7262  255 255 255
-7.45021 63.7472 -59.1288  255 255 255
28.5752 64.7348 -83.3177  255 255 255
28.2816 63.8269 -84.0508  255 255 255
-1.08201 61.712 -64.1379  255 255 255
55.0827 17.9711 15.2681  255 255 255
21.9292 62.1957 -82.0501  255 255 255
22.685 61.7348 -82.1753  255 255 255
22.9599 62.0641 -83.1271  255 255 255
7.49966 58.6509 -66.8353  255 255 255
56.6736 27.5389 -14.8095  255 255 255
-5.93014 58.2049 -63.8644  255 255 255
24.2021 60.0768 -86.5803  255 255 255
-7.76171 56.4873 -63.1809  255 255 255
29.8892 58.7881 -90.9381  255 255 255
29.8892 58.7881 -90.9381  255 255 255
37.3927 57.5556 -98.1319  255 255 255
-9.87192 54.6261 -63.4074  255 255 255
50.689 17.0518 4.65111  255 255 255
55.9859 10.1017 11.2575  255 255 255
41.2391 35.6874 -75.1422  255 255 255
-17.9492 45.6086 -64.8148  255 255 255
48.2316 11.2868 -5.6656  255 255 255
53.0923 16.032 -32.0156  255 255 255
-8.27197 43.6716 -76.0967  255 255 255
-12.496 41.1183 -74.7994  255 255 255
54.5261 1.412 2.60404  255 255 255
58.1267 -1.79257 8.26052  255 255 255
10.6111 26.4498 -63.1442  255 255 255
2.4208 26.4526 -62.7751  255 255 255
0.732306 24.4415 -60.1829  255 255 255
48.2238 -0.275211 -11.6272  255 255 255
50.1186 -1.20053 -9.64157  255 255 255
51.7666 -2.75865 -6.47566  255 255 255
51.0661 -2.27734 -7.93533  255 255 255
51.0255 -2.34087 -7.8883  255 255 255
57.8328 -7.04015 4.01742  255 255 255
-0.104775 16.3697 -51.558  255 255 255
6.98012 -2.99631 26.1421  255 255 255
47.2827 -3.94125 -17.5807  255 255 255
59.5729 -11.8619 3.71723  255 255 255
7.84794 -4.85875 30.0687  255 255 255
48.7891 -7.16169 -16.1008  255 255 255
48.8342 -7.15574 -16.1576  255 255 255
25.6892 -9.39174 11.1091  255 255 255
58.6052 -16.2177 1.12892  255 255 255
48.0799 -10.3409 -20.2541  255 255 255
2.16246 -8.47874 34.251  255 255 255
11.4664 -10.9486 31.0007  255 255 255
53.1699 -15.7429 -11.579  255 255 255
53.2429 -15.7432 -11.6895  255 255 255
59.0521 -19.1231 -1.51129  255 255 255
-14.785 -4.03016 26.1165  255 255 255
58.2219 -19.3715 -4.31575  255 255 255
4.79547 -12.0321 34.4707  255 255 255
11.1298 -13.4535 31.7784  255 255 255
52.4721 -16.9295 -14.5001  255 255 255
10.0303 -13.4046 32.9576  255 255 255
-0.128781 -12.597 35.9551  255 255 255
-9.12278 -10.2234 33.8176  255 255 255
-21.4683 -4.21564 14.3927  255 255 255
-26.22 -1.9112 7.7643  255 255 255
-22.3489 -3.79839 9.34257  255 255 255
-27.3232 4.04273 -35.2058  255 255 255
-18.9521 -7.71795 23.293  255 255 255
2.22582 -16.9526 36.0555  255 255 255
-8.49045 -14.4047 34.9092  255 255 255
-21.0709 -8.79983 19.7325  255 255 255
11.9453 -19.9568 30.3309  255 255 255
-11.0771 -13.8321 33.6286  255 255 255
-19.0388 -11.4749 25.3976  255 255 255
46.4561 -27.3657 -5.13993  255 255 255
-2.39646 -18.5068 36.2117  255 255 255
-26.3273 -9.60368 16.2798  255 255 255
-17.7285 -14.6394 28.0772  255 255 255
-3.01273 -19.9093 35.8161  255 255 255
44.7481 -30.2388 -3.72698  255 255 255
-12.2182 -16.997 32.7638  255 255 255
18.2073 -26.2072 31.2715  255 255 255
-20.5678 -14.3458 26.4736  255 255 255
10.9379 -24.7302 33.7857  255 255 255
-20.1901 -15.0067 27.0373  255 255 255
-3.47851 -21.8754 35.3171  255 255 255
-14.4729 -19.1312 31.1401  255 255 255
-11.8906 -20.3351 32.3674  255 255 255
-17.6545 -18.9609 31.0943  255 255 255
15.0864 -29.6986 33.6808  255 255 255
-8.32932 -25.0877 36.0741  255 255 255
-1.37651 -27.322 36.3456  255 255 255
2.35837 -29.8539 37.1023  255 255 255
-28.6603 -20.4009 21.518  255 255 255
-26.222 -21.6295 26.221  255 255 255
-23.9799 -23.1318 31.4856  255 255 255
-9.6064 -28.5062 36.7069  255 255 255
-12.4477 -28.3904 36.663  255 255 255
12.2094 -37.1986 28.9981  255 255 255
-18.2543 -27.3476 34.1549  255 255 255
-23.3976 -26.594 28.923  255 255 255
11.8235 -39.4904 27.6211  255 255 255
12.0894 -39.5461 27.0134  255 255 255
-15.8107 -33.2644 31.972  255 255 255
-5.50632 -36.8326 35.3931  255 255 255
-18.5981 -32.6934 29.3712  255 255 255
-22.5013 -31.7342 25.9377  255 255 255
-25.8267 -31.1395 20.3793  255 255 255
1.25474 -40.3703 31.3715  255 255 255
1.25474 -40.3703 31.3715  255 255 255
-0.952245 -39.7866 31.059  255 255 255
-1.3997 -40.2155 31.2817  255 255 255
-1.3997 -40.2155 31.2817  255 255 255
5.71841 -43.0042 29.5574  255 255 255
-20.1717 -34.9179 27.2025  255 255 255
-12.5916 -38.8697 29.1893  255 255 255
-47.1994 -29.0275 3.75128  255 255 255
-47.1985 -29.0041 4.02531  255 255 255
-44.7715 -36.5149 12.1896  255 255 255
-7.85899 -49.2569 29.1698  255 255 255
-6.35428 -50.3447 29.4054  255 255 255
6.56356 -58.2427 32.8337  255 255 255
-38.0948 -45.6054 21.7636  255 255 255
-34.977 -50.0897 26.8736  255 255 255
0.03308 -62.0586 37.5459  255 255 255
1.13362 -65.9839 41.8994  255 255 255
-30.8666 -55.7529 32.6472  255 255 255
-30.4411 -56.1656 33.1085  255 255 255
-25.8863 -63.9558 41.9575  255 255 255
-33.1981 -61.8934 39.6293  255 255 255
55.5953 57.5791 -3.32803  255 255 255
82.5548 101.01 -93.8235  255 255 255
23.1261 90.4379 -58.3804  255 255 255
23.1261 90.4379 -58.3804  255 255 255
63.1676 95.8692 -82.3498  255 255 255
48.6113 60.1433 -12.3203  255 255 255
42.7522 92.3026 -72.0392  255 255 255
-2.6573 83.2089 -44.579  255 255 255
50.26 56.5555 -11.547  255 255 255
54.8384 38.9651 19.5243  255 255 255
-9.38071 78.7037 -42.7922  255 255 255
55.1835 87.693 -85.9777  255 255 255
54.6485 87.1644 -84.7086  255 255 255
-7.94277 73.5556 -49.4309  255 255 255
11.354 75.1923 -61.4887  255 255 255
59.9075 80.7962 -93.837  255 255 255
52.8944 29.0346 17.842  255 255 255
32.8786 74.5573 -79.6342  255 255 255
45.4503 71.8923 -87.9823  255 255 255
45.6302 72.0082 -88.361  255 255 255
24.4954 70.1323 -76.5247  255 255 255
33.0358 70.5407 -82.4246  255 255 255
39.74 69.1326 -85.6789  255 255 255
54.3896 21.4387 16.4184  255 255 255
-1.71846 64.231 -61.2278  255 255 255
-1.69381 64.2764 -61.3499  255 255 255
4.26182 60.315 -68.1337  255 255 255
53.5845 18.0504 12.0397  255 255 255
53.5845 18.0504 12.0397  255 255 255
-18.5385 57.8476 -54.4356  255 255 255
48.4653 21.6171 2.00331  255 255 255
53.1468 27.9658 -23.2258  255 255 255
47.7999 31.6206 -31.1563  255 255 255
59.5506 50.756 -91.3965  255 255 255
60.1077 50.6502 -94.145  255 255 255
51.9969 15.832 7.17755  255 255 255
-14.2293 53.391 -61.7743  255 255 255
-18.4266 53.0189 -58.9073  255 255 255
54.905 22.9628 -21.9637  255 255 255
46.6238 27.13 -40.0284  255 255 255
49.3426 22.906 -35.7353  255 255 255
48.6059 23.0592 -37.279  255 255 255
49.5763 11.6454 -2.59489  255 255 255
51.2246 18.1132 -34.2788  255 255 255
52.2718 14.1148 -33.3743  255 255 255
52.7777 12.8587 -34.392  255 255 255
52.3124 4.1452 -4.74597  255 255 255
48.6867 15.3997 -42.1887  255 255 255
52.3076 12.1314 -34.9283  255 255 255
49.2656 14.2129 -41.0027  255 255 255
48.9722 14.1074 -42.0931  255 255 255
-26.2931 38.3609 -66.0849  255 255 255
25.0922 24.7591 -62.3868  255 255 255
52.0436 1.78639 -2.94189  255 255 255
-16.8947 37.5715 -72.9273  255 255 255
12.279 23.6305 -61.3897  255 255 255
59.4376 -5.83822 7.35299  255 255 255
7.19894 22.5957 -58.6301  255 255 255
3.69211 19.3487 -54.3411  255 255 255
50.057 -3.90369 -11.7679  255 255 255
59.7321 -11.3655 5.20244  255 255 255
54.3231 -10.6881 -6.1169  255 255 255
57.8747 -14.8999 -2.07344  255 255 255
-8.97871 -5.50756 31.312  255 255 255
58.6284 -18.5237 -2.346  255 255 255
-1.42473 -9.0087 34.68  255 255 255
57.4379 -19.0096 -5.38622  255 255 255
-16.9797 -3.69296 22.8893  255 255 255
52.8962 -17.526 -13.619  255 255 255
-23.5701 7.37276 -38.9503  255 255 255
58.5675 -21.9078 -3.69263  255 255 255
-0.588402 -12.9435 36.0443  255 255 255
59.591 -23.8513 -4.07189  255 255 255
-29.4706 5.1246 -36.1586  255 255 255
-0.933838 -15.6895 36.3188  255 255 255
-24.9524 -0.391944 -30.4235  255 255 255
-13.2049 -14.5824 32.6323  255 255 255
-19.8393 -13.3264 24.8859  255 255 255
-10.0604 -17.3192 34.1446  255 255 255
1.87925 -21.1585 35.249  255 255 255
-14.5623 -16.221 31.3899  255 255 255
-3.05687 -20.5639 35.3367  255 255 255
-6.52307 -19.6743 35.3146  255 255 255
-18.3261 -17.1943 29.4205  255 255 255
-17.3592 -17.7063 29.5894  255 255 255
-8.46429 -20.9223 34.3152  255 255 255
-16.5678 -18.8456 30.9232  255 255 255
-2.80572 -24.8949 36.8488  255 255 255
-7.71846 -23.5079 35.2828  255 255 255
-13.685 -21.6432 33.8917  255 255 255
-18.6002 -23.7499 31.6062  255 255 255
-19.1291 -23.9777 32.2198  255 255 255
-19.1291 -23.9777 32.2198  255 255 255
10.8719 -39.2381 28.4712  255 255 255
12.7107 -40.1149 26.3427  255 255 255
9.42152 -39.2388 29.2096  255 255 255
-10.5078 -32.9524 34.904  255 255 255
-5.50427 -37.7092 33.4211  255 255 255
-19.0881 -35.4124 27.6604  255 255 255
2.95164 -43.2556 28.4972  255 255 255
6.19946 -46.1454 30.8229  255 255 255
-43.9306 -30.2467 4.86007  255 255 255
-6.00613 -42.8447 30.6593  255 255 255
-49.3236 -31.8029 6.77785  255 255 255
-16.9769 -42.7008 26.5359  255 255 255
-45.1589 -34.6263 8.8215  255 255 255
-49.5574 -34.5508 9.95615  255 255 255
-42.8288 -39.7305 15.7451  255 255 255
-36.8238 -44.8224 20.864  255 255 255
-43.9935 -43.2513 19.3968  255 255 255
-39.7162 -45.1373 21.149  255 255 255
-42.9037 -46.4672 23.0514  255 255 255
-27.4185 -52.1907 28.7278  255 255 255
-37.6864 -49.9991 26.8617  255 255 255
-30.1893 -53.0103 29.7573  255 255 255
7.13103 -67.8709 43.8689  255 255 255
-34.079 -56.7526 34.4564  255 255 255
-36.0364 -58.9896 36.6264  255 255 255
-25.621 -62.6235 40.3809  255 255 255
-26.1237 -63.0209 40.126  255 255 255
-34.4488 -60.7098 38.4124  255 255 255
-26.219 -63.5491 41.3417  255 255 255
-33.8104 -61.4478 39.1452  255 255 255
49.4346 60.1104 -10.6443  255 255 255
65.689 93.8328 -90.8138  255 255 255
51.0866 39.785 18.0528  255 255 255
-4.70711 81.262 -44.9646  255 255 255
60.0549 88.4779 -87.4681  255 255 255
58.8505 32.383 25.2527  255 255 255
56.981 29.3508 27.8572  255 255 255
52.6448 48.9806 -11.2785  255 255 255
70.285 86.6796 -97.1251  255 255 255
66.6009 79.7882 -100.193  255 255 255
-18.9283 69.6666 -44.3489  255 255 255
73.5064 78.9983 -105.479  255 255 255
73.6276 79.0662 -105.736  255 255 255
41.1918 69.6945 -86.9567  255 255 255
53.1304 20.9815 12.7257  255 255 255
-9.72409 61.9261 -58.6503  255 255 255
19.8556 61.6745 -77.2935  255 255 255
20.1436 61.9753 -78.4276  255 255 255
52.1008 18.5542 9.01715  255 255 255
-9.04199 56.6611 -63.8123  255 255 255
55.2935 23.8181 -20.35  255 255 255
55.2484 23.8231 -20.2924  255 255 255
-15.6365 48.943 -65.2  255 255 255
50.2644 22.3713 -33.6523  255 255 255
51.9977 6.99054 0.645754  255 255 255
51.1356 15.8764 -35.4188  255 255 255
58.2115 -2.89305 7.49276  255 255 255
51.6649 10.1742 -38.4191  255 255 255
1.58265 27.1212 -63.2112  255 255 255
10.3005 18.3233 -53.4766  255 255 255
50.7746 -6.80989 -11.8784  255 255 255
51.7925 -8.52406 -10.8031  255 255 255
6.62244 -6.53269 31.4956  255 255 255
6.24297 -6.6182 30.8273  255 255 255
53.2092 -12.6629 -10.2804  255 255 255
4.28274 -9.34861 34.1767  255 255 255
56.906 -16.147 -4.80633  255 255 255
-5.02634 -7.2681 33.5461  255 255 255
60.1138 -20.7473 -2.40463  255 255 255
2.78578 -12.418 35.3564  255 255 255
-23.2307 5.2928 -36.5038  255 255 255
6.94177 -16.6138 34.0153  255 255 255
-9.5423 -11.9659 33.8708  255 255 255
4.73193 -17.0211 35.3254  255 255 255
2.51426 -18.3022 35.5155  255 255 255
-21.7631 -9.94813 21.0742  255 255 255
-21.639 -13.6014 25.0974  255 255 255
-24.3953 -12.3567 19.758  255 255 255
-24.3953 -12.3567 19.758  255 255 255
2.12153 -22.0131 35.0843  255 255 255
2.12153 -22.0131 35.0843  255 255 255
-18.7547 -15.3897 27.2754  255 255 255
-17.1115 -16.6009 29.1133  255 255 255
-17.999 -16.2667 28.3827  255 255 255
-13.0848 -18.5337 32.2411  255 255 255
0.0752594 -22.9899 34.7574  255 255 255
-18.2551 -19.5966 31.6966  255 255 255
-12.7235 -21.4202 33.4939  255 255 255
-1.84584 -26.174 37.0193  255 255 255
13.2859 -31.5293 33.3577  255 255 255
-16.6481 -23.4719 32.1342  255 255 255
7.14496 -31.9769 38.0475  255 255 255
-26.395 -21.0155 26.2554  255 255 255
-14.9098 -25.1868 33.2661  255 255 255
-7.51332 -28.2845 34.9506  255 255 255
5.81019 -33.8799 36.2469  255 255 255
-23.2281 -25.0505 30.6695  255 255 255
5.34783 -38.0934 31.4103  255 255 255
11.9175 -41.1883 25.6804  255 255 255
-46.2333 -26.3619 0.206654  255 255 255
-46.2316 -26.4245 0.129498  255 255 255
-12.0944 -39.5766 28.4185  255 255 255
-48.6959 -28.6169 3.47829  255 255 255
-14.1037 -42.3005 26.3728  255 255 255
-36.5653 -45.4779 21.3289  255 255 255
-41.1714 -44.7469 20.2854  255 255 255
12.3389 -64.5698 39.7505  255 255 255
-9.53739 -60.3824 36.2899  255 255 255
9.39958 -68.0119 43.9155  255 255 255
-8.2095 -63.4462 39.9649  255 255 255
-5.51851 -67.5443 45.209  255 255 255
-28.7962 -61.9239 39.2157  255 255 255
52.5201 50.6688 -8.9184  255 255 255
72.2707 86.3445 -98.9267  255 255 255
-24.1777 55.7782 -51.3374  255 255 255
50.2361 26.3794 -30.6106  255 255 255
-12.5886 48.8062 -67.5311  255 255 255
13.3173 24.6094 -61.7254  255 255 255
-2.63872 -13.5035 35.8308  255 255 255
-19.5126 -6.74753 20.6421  255 255 255
-18.9741 -10.5991 25.7483  255 255 255
-14.0525 -13.1129 31.5808  255 255 255
-12.4365 -15.8681 33.0008  255 255 255
-11.2393 -20.5668 33.3392  255 255 255
6.06494 -29.9862 37.4244  255 255 255
2.37178 -29.3531 38.909  255 255 255
-14.4284 -25.5393 33.5018  255 255 255
-19.0445 -24.4771 32.356  255 255 255
5.60737 -34.6444 34.404  255 255 255
-9.07076 -35.9091 33.3684  255 255 255
-26.2781 -32.3393 19.735  255 255 255
-22.6664 -35.0867 23.2509  255 255 255
-41.6068 -40.7808 16.5166  255 255 255
-46.1922 -40.5128 16.4261  255 255 255
-25.6883 -53.3058 29.53  255 255 255
-36.6858 -50.9563 28.0041  255 255 255
-18.7352 53.0996 -59.7467  255 255 255
-20.7188 49.1623 -58.4911  255 255 255
48.5777 14.5693 -4.15191  255 255 255
52.7089 5.1533 -0.190203  255 255 255
51.8447 4.12067 -0.69893  255 255 255
-2.18415 2.74834 21.9194  255 255 255
-21.7081 -0.128755 5.40185  255 255 255
-23.2018 -1.13616 6.36196  255 255 255
-22.3936 -1.83644 7.11352  255 255 255
-3.62886 -12.419 35.9176  255 255 255
-9.64848 -17.5861 35.8897  255 255 255
1.61705 -25.9092 36.8574  255 255 255
-2.87513 -25.8833 37.2705  255 255 255
-6.62411 -25.0927 36.5315  255 255 255
-14.076 -24.9528 33.9539  255 255 255
2.83111 -30.9611 38.1559  255 255 255
-13.0574 -26.4831 34.1194  255 255 255
15.6993 -39.0558 26.304  255 255 255
13.5438 -38.9199 26.2418  255 255 255
13.5438 -38.9199 26.2418  255 255 255
1.19031 -39.1858 32.2361  255 255 255
4.74722 -41.699 29.8195  255 255 255
5.00059 -41.8213 29.1342  255 255 255
-25.9943 -33.2888 19.8878  255 255 255
4.72177 -43.6643 28.7791  255 255 255
-23.7118 -34.6015 22.8557  255 255 255
-45.8233 -38.5669 14.4535  255 255 255
-46.9043 -39.273 15.3282  255 255 255
-32.8293 -46.1847 23.4779  255 255 255
-38.3439 -44.8311 21.1613  255 255 255
10.0154 -64.4432 39.1471  255 255 255
11.3476 -66.1446 41.5041  255 255 255
48.0035 57.5705 -14.326  255 255 255
66.431 90.0276 -91.5127  255 255 255
20.3476 78.7001 -67.3479  255 255 255
57.0556 38.8408 -12.7251  255 255 255
25.2562 65.6758 -78.1519  255 255 255
54.4669 8.59771 7.53889  255 255 255
51.3541 6.7737 -1.34258  255 255 255
11.8765 26.3096 -62.8109  255 255 255
-19.2385 -0.547793 8.31452  255 255 255
-4.56672 -16.5379 36.1445  255 255 255
1.34439 -24.9407 36.4146  255 255 255
-44.8934 -29.1795 4.07683  255 255 255
-26.8109 -36.1951 22.6131  255 255 255
-31.3919 -50.1692 25.95  255 255 255
-40.9025 -47.6422 24.2243  255 255 255
24.5101 89.6119 -61.116  255 255 255
8.86462 24.3405 -60.3716  255 255 255
-7.01702 -12.0774 35.1879  255 255 255
5.39096 -32.2621 38.1672  255 255 255
3.17418 -40.9705 30.3712  255 255 255
-20.4822 -33.4609 26.6708  255 255 255
-44.0881 -39.8591 15.371  255 255 255
-44.0881 -39.8591 15.371  255 255 255
-44.3522 -41.282 17.7962  255 255 255
61.7861 90.1326 -86.7095  255 255 255
11.8178 82.8951 -57.3394  255 255 255
51.4233 48.9445 -12.8723  255 255 255
55.3905 41.4849 -16.0071  255 255 255
-21.7226 -2.22802 10.4549  255 255 255
-9.24382 -14.46 34.0871  255 255 255
15.4386 -21.8821 34.085  255 255 255
0.192992 -32.3914 38.574  255 255 255
-14.796 -28.229 37.0542  255 255 255
-32.0446 -51.704 27.7537  255 255 255
36.8371 65.3294 -90.8834  255 255 255
36.8371 65.3294 -90.8834  255 255 255
-7.53321 55.5016 -67.2408  255 255 255
-11.878 -12.6154 32.6041  255 255 255
5.63215 -26.2283 43.2562  255 255 255
-4.325 -30.6804 38.5956  255 255 255
-10.709 -25.8571 33.6573  255 255 255
-10.709 -25.8571 33.6573  255 255 255
-8.26916 59.2209 -62.9713  255 255 255
-38.6724 55.3923 -41.6499  255 255 255
-17.9677 57.3229 -57.4903  255 255 255
-59.6764 53.0219 -28.5182  255 255 255
-37.8814 54.4778 -43.1786  255 255 255
-28.8923 55.5201 -50.2859  255 255 255
-28.8923 55.5201 -50.2859  255 255 255
-25.9395 55.0793 -52.2821  255 255 255
49.1718 33.0918 -28.0097  255 255 255
-29.7223 52.1738 -52.382  255 255 255
49.0575 21.4877 4.43792  255 255 255
54.6541 27.7452 -17.9323  255 255 255
-35.7806 50.0305 -48.907  255 255 255
-50.2549 47.1642 -38.8622  255 255 255
55.6877 14.5355 15.2369  255 255 255
-46.6488 46.89 -42.5882  255 255 255
-36.4621 47.5207 -50.2465  255 255 255
-26.7925 47.3613 -55.4691  255 255 255
52.1068 16.5391 7.65358  255 255 255
-7.30208 49.2212 -71.6467  255 255 255
47.7745 29.3709 -33.5627  255 255 255
-50.0234 46.2899 -41.1797  255 255 255
4.01736 48.5815 -81.5917  255 255 255
4.48299 48.1571 -82.3012  255 255 255
54.4432 22.8125 -23.0635  255 255 255
-42.6074 44.2929 -48.9873  255 255 255
-26.9206 44.3922 -60.7099  255 255 255
-49.628 41.9512 -44.055  255 255 255
-49.628 41.9512 -44.055  255 255 255
-26.6793 43.225 -62.1456  255 255 255
-63.3651 41.5681 -34.7444  255 255 255
-43.1164 42.0256 -48.9113  255 255 255
-27.6849 42.9388 -61.6748  255 255 255
-56.823 41.2419 -38.911  255 255 255
-46.7525 41.5281 -46.3476  255 255 255
-52.2946 41.3039 -42.1419  255 255 255
-62.0358 41.2876 -36.9441  255 255 255
-62.9273 41.0474 -35.9875  255 255 255
-55.0975 41.1794 -41.1689  255 255 255
-52.8648 40.8672 -42.4393  255 255 255
-77.1799 40.6342 -26.6171  255 255 255
-51.3892 40.1932 -44.2452  255 255 255
6.83994 39.9081 -78.2209  255 255 255
6.09372 39.3526 -76.6125  255 255 255
53.1071 19.4427 -28.6818  255 255 255
-58.4125 39.2393 -39.9829  255 255 255
-51.5631 38.6792 -43.504  255 255 255
-45.2858 39.7482 -52.1215  255 255 255
-54.0313 39.1532 -44.0459  255 255 255
50.5278 19.9117 -33.85  255 255 255
50.5278 19.9117 -33.85  255 255 255
-49.3958 38.5985 -47.569  255 255 255
-50.2578 38.825 -48.0568  255 255 255
-64.8565 38.4198 -37.057  255 255 255
12.9247 34.8825 -72.5976  255 255 255
-55.3937 38.513 -44.0934  255 255 255
-61.8794 38.2519 -38.9212  255 255 255
-27.1506 38.7574 -64.9556  255 255 255
-73.3994 38.0698 -31.9706  255 255 255
-4.30007 37.0916 -73.5684  255 255 255
-50.8669 37.4133 -47.1085  255 255 255
46.9795 25.7994 -63.8183  255 255 255
-10.7364 36.2041 -71.4687  255 255 255
49.7857 18.3567 -36.0671  255 255 255
53.4253 16.1098 -29.7807  255 255 255
-68.3987 36.8174 -35.9128  255 255 255
-54.4913 36.9166 -46.2083  255 255 255
-27.3832 37.2097 -66.8276  255 255 255
-71.6539 36.2515 -34.4172  255 255 255
-71.6539 36.2515 -34.4172  255 255 255
-42.6795 35.6362 -54.0205  255 255 255
-70.0666 35.3837 -34.1215  255 255 255
-4.00835 31.8616 -66.1423  255 255 255
-9.46897 33.3603 -68.9156  255 255 255
-44.4736 22.0429 -8.96901  255 255 255
-54.0373 35.534 -48.0996  255 255 255
1.27261 31.1194 -68.7838  255 255 255
-36.6775 34.9276 -60.0208  255 255 255
-7.10873 31.703 -67.7739  255 255 255
-41.3932 35.0455 -58.0994  255 255 255
-0.118525 29.5501 -65.1444  255 255 255
49.6105 7.88331 -4.1413  255 255 255
-2.77433 30.2027 -66.9122  255 255 255
-2.74773 30.2351 -66.9654  255 255 255
-3.99182 29.3625 -64.6519  255 255 255
-4.78398 29.3049 -64.5814  255 255 255
51.8288 13.4221 -32.754  255 255 255
52.7804 5.55692 1.26866  255 255 255
52.7804 5.55692 1.26866  255 255 255
-16.1943 31.3503 -66.5129  255 255 255
-16.8484 30.9238 -65.8814  255 255 255
-70.2295 32.2297 -34.0217  255 255 255
-27.2397 31.833 -65.5823  255 255 255
-67.4443 32.5435 -39.3071  255 255 255
-67.4443 32.5435 -39.3071  255 255 255
-66.0062 32.6564 -41.0746  255 255 255
-53.0607 32.4079 -50.34  255 255 255
-20.0029 29.9737 -64.8692  255 255 255
-8.66809 27.7579 -63.2695  255 255 255
-20.0166 29.437 -64.2927  255 255 255
-29.0638 31.0078 -64.7907  255 255 255
-29.0588 30.9881 -64.7491  255 255 255
-13.3729 27.5958 -61.4223  255 255 255
-64.4369 31.9009 -42.2585  255 255 255
-47.8487 31.7346 -57.6746  255 255 255
-48.0318 31.4523 -56.4219  255 255 255
-28.8981 29.3006 -63.1341  255 255 255
-65.7646 31.0105 -43.1556  255 255 255
22.2266 18.5422 -54.7095  255 255 255
-55.8559 30.2303 -50.5722  255 255 255
62.3969 -2.65855 18.2053  255 255 255
62.2791 -2.39582 15.6705  255 255 255
-43.2817 29.6435 -61.803  255 255 255
-54.2238 29.7861 -53.8685  255 255 255
-27.4764 26.4827 -60.1671  255 255 255
-23.1998 25.6699 -60.2709  255 255 255
-75.3058 31.0767 -43.6628  255 255 255
-0.792407 20.4637 -55.8383  255 255 255
-47.4401 28.9457 -58.7579  255 255 255
-29.4953 26.1666 -60.2332  255 255 255
-66.256 29.1591 -43.4452  255 255 255
-55.5605 28.9907 -53.1929  255 255 255
-53.1051 28.7769 -54.3989  255 255 255
-64.1876 28.9968 -45.7994  255 255 255
-48.233 28.647 -59.2004  255 255 255
-54.0248 28.2565 -52.5301  255 255 255
-54.0248 28.2565 -52.5301  255 255 255
-19.4818 23.0559 -57.0449  255 255 255
-73.5567 29.5248 -42.6363  255 255 255
-62.57 28.1886 -46.5953  255 255 255
-78.7287 28.8513 -35.6678  255 255 255
30.8006 12.9347 -49.2812  255 255 255
51.9892 7.68924 -39.0806  255 255 255
59.2248 -2.45597 9.0204  255 255 255
-36.8481 25.5694 -58.246  255 255 255
-36.8481 25.5694 -58.246  255 255 255
59.3259 -3.01396 11.5582  255 255 255
-40.432 26.2858 -59.2905  255 255 255
-16.6082 21.2637 -54.5045  255 255 255
-53.6135 27.7163 -55.9857  255 255 255
-0.0187327 17.5838 -51.4712  255 255 255
-33.1216 24.3947 -58.3668  255 255 255
-62.6973 27.4444 -47.6607  255 255 255
-62.8287 27.5961 -48.2326  255 255 255
-34.6307 24.4532 -57.9287  255 255 255
-17.5752 20.8282 -54.2344  255 255 255
-61.1315 27.6507 -50.6726  255 255 255
-83.1735 28.1009 -32.6885  255 255 255
-60.7039 27.5037 -51.2304  255 255 255
-60.2425 27.0669 -48.9351  255 255 255
58.5434 -2.83312 7.93934  255 255 255
-65.8157 27.2899 -45.671  255 255 255
-58.8287 27.1366 -52.3612  255 255 255
-58.4633 26.7625 -50.4222  255 255 255
-75.2908 28.3278 -44.1827  255 255 255
-62.8026 27.086 -49.6688  255 255 255
-56.1053 26.3822 -52.238  255 255 255
-40.8506 24.6205 -57.3942  255 255 255
-31.5548 22.6038 -55.4398  255 255 255
60.9096 -4.94854 14.8652  255 255 255
-59.1141 26.8935 -52.7687  255 255 255
-58.549 26.7735 -53.2354  255 255 255
-61.0025 26.7021 -51.4048  255 255 255
57.8935 -3.52136 7.32851  255 255 255
-62.055 26.5769 -51.0082  255 255 255
-57.4398 26.4135 -54.3911  255 255 255
-53.8637 25.8397 -54.9079  255 255 255
-2.34395 15.9848 -50.0589  255 255 255
-77.5221 26.7591 -38.2  255 255 255
-78.1587 26.7383 -37.9192  255 255 255
-56.7481 26.0496 -55.2572  255 255 255
-80.9718 26.4767 -33.9204  255 255 255
-73.7882 26.9951 -43.9499  255 255 255
-59.0399 26.0118 -53.8304  255 255 255
-62.0687 25.9887 -51.0047  255 255 255
-62.0687 25.9887 -51.0047  255 255 255
59.3255 -4.96695 9.97382  255 255 255
-62.9433 25.3787 -48.7033  255 255 255
-39.9422 22.0551 -54.222  255 255 255
-20.9421 18.1246 -50.9522  255 255 255
-25.8505 18.5883 -50.2667  255 255 255
44.7397 5.31306 -41.337  255 255 255
62.2571 -7.00847 15.4212  255 255 255
-57.3822 24.0229 -52.5691  255 255 255
-7.62174 1.8096 23.3266  255 255 255
-79.6833 25.1792 -38.2612  255 255 255
-75.4697 25.7708 -46.0812  255 255 255
-63.6082 24.3799 -51.3046  255 255 255
-57.5651 23.9336 -56.4253  255 255 255
61.3156 -6.87967 10.9911  255 255 255
-65.8079 23.7683 -48.6392  255 255 255
-9.15878 13.3308 -45.648  255 255 255
-82.0695 24.4114 -35.9098  255 255 255
-79.7577 24.4732 -39.0844  255 255 255
-57.5564 22.9875 -54.0423  255 255 255
-25.7889 15.931 -47.3079  255 255 255
-90.9139 26.3744 -41.4004  255 255 255
-81.618 24.1454 -37.6551  255 255 255
-78.5717 23.6629 -39.1203  255 255 255
-64.0537 23.1586 -52.2035  255 255 255
-81.6121 23.7133 -38.0087  255 255 255
-65.2054 22.5038 -50.1227  255 255 255
-35.8234 16.4271 -47.2792  255 255 255
-35.8234 16.4271 -47.2792  255 255 255
-10.8543 0.64329 23.4627  255 255 255
-23.5258 13.9117 -45.3919  255 255 255
-66.4589 22.2599 -50.6371  255 255 255
-68.1506 22.3348 -49.6567  255 255 255
56.0817 -6.41164 0.730212  255 255 255
-23.6759 13.4753 -44.9447  255 255 255
56.8756 -7.09221 1.86258  255 255 255
41.4888 0.794406 -36.3695  255 255 255
8.65157 -4.29791 29.3107  255 255 255
57.6412 -8.21504 3.07804  255 255 255
9.76736 -5.01194 29.5314  255 255 255
10.8425 -5.42673 28.8711  255 255 255
59.6716 -9.79076 6.32484  255 255 255
53.5327 -7.36571 -5.8158  255 255 255
-41.3762 13.3489 -44.4802  255 255 255
41.1273 -2.15443 -33.0818  255 255 255
13.0317 -6.62495 27.4674  255 255 255
41.8024 -3.31295 -31.5794  255 255 255
5.28387 -6.32578 32.4354  255 255 255
65.9084 -13.876 18.557  255 255 255
40.5311 -3.82088 -30.3222  255 255 255
62.5289 -12.7975 12.4943  255 255 255
48.9293 -7.23122 -16.2941  255 255 255
-11.7226 -3.24813 27.5586  255 255 255
-15.9508 -2.13634 22.3386  255 255 255
-58.8027 13.9316 -43.7831  255 255 255
-60.8842 14.2144 -44.35  255 255 255
-60.8842 14.2144 -44.35  255 255 255
-17.6396 -0.566611 9.70353  255 255 255
-17.9121 -0.850501 10.1144  255 255 255
-66.698 14.4807 -42.6881  255 255 255
66.8462 -15.6832 19.3567  255 255 255
51.3769 -10.2228 -12.9835  255 255 255
-61.2825 12.2898 -42.1032  255 255 255
-44.5157 8.21469 -38.5742  255 255 255
24.2585 -9.59366 12.5275  255 255 255
-50.4623 9.14295 -38.5233  255 255 255
-75.8897 14.2804 -43.8451  255 255 255
51.3926 -11.3573 -13.1404  255 255 255
60.8562 -14.7869 5.09635  255 255 255
-43.2612 7.14825 -38.5008  255 255 255
-42.3513 6.69175 -36.7397  255 255 255
-14.835 -5.4701 26.9896  255 255 255
-9.73398 -6.85278 31.5491  255 255 255
-24.5663 -1.66228 6.92182  255 255 255
63.5061 -16.4123 8.36611  255 255 255
14.2591 -10.7113 28.5843  255 255 255
-74.4657 12.0433 -41.5921  255 255 255
-20.5971 -3.54666 13.3794  255 255 255
-20.5971 -3.54666 13.3794  255 255 255
24.9445 -11.4328 14.1707  255 255 255
2.71596 -9.96236 34.5251  255 255 255
-38.2003 4.05439 -33.9913  255 255 255
-18.1325 -5.30005 22.7  255 255 255
4.81482 -10.4934 34.3899  255 255 255
4.81482 -10.4934 34.3899  255 255 255
60.9795 -16.6732 4.97591  255 255 255
-40.0791 4.18441 -33.3038  255 255 255
47.5863 -12.2845 -22.2662  255 255 255
61.6331 -17.087 3.9511  255 255 255
48.3839 -12.6836 -22.0845  255 255 255
48.4264 -12.7001 -22.1929  255 255 255
53.5595 -14.7796 -10.4747  255 255 255
-18.1303 -6.30789 23.9207  255 255 255
-38.0812 2.51873 -32.5389  255 255 255
47.4968 -13.3248 -20.859  255 255 255
62.6711 -18.342 5.06615  255 255 255
47.4845 -13.6496 -21.3031  255 255 255
9.40011 -12.2395 32.9706  255 255 255
26.0293 -13.5535 16.4179  255 255 255
59.8315 -17.6202 -0.633294  255 255 255
-24.718 -4.59365 10.2525  255 255 255
10.4058 -12.7442 32.1943  255 255 255
-32.9123 0.16474 -28.9079  255 255 255
-75.0485 8.47485 -37.1197  255 255 255
-51.4559 3.53303 -32.5382  255 255 255
-61.7508 5.36035 -34.2818  255 255 255
63.9937 -20.1363 9.44735  255 255 255
-52.246 1.45093 -15.7841  255 255 255
24.2674 -14.8044 18.0183  255 255 255
-40.0333 0.250533 -29.2106  255 255 255
19.3945 -14.6775 22.8336  255 255 255
-64.9596 4.70162 -33.2956  255 255 255
-5.15295 -11.7632 35.3066  255 255 255
5.41993 -13.6142 34.9837  255 255 255
-2.12573 -12.6885 35.7866  255 255 255
-48.6606 0.258866 -29.2292  255 255 255
-23.6005 -7.90188 17.9663  255 255 255
-10.9778 -11.2115 32.8937  255 255 255
-17.3114 -9.9819 26.9181  255 255 255
24.8697 -17.0305 20.7657  255 255 255
-45.1611 -1.57747 -27.5619  255 255 255
-46.4459 -1.52639 -27.1431  255 255 255
-0.829652 -13.9588 35.9856  255 255 255
18.2836 -16.5895 25.2022  255 255 255
-48.398 -1.38409 -27.1126  255 255 255
11.2748 -16.1305 32.3108  255 255 255
65.3288 -23.8089 4.42415  255 255 255
-49.8022 -1.9399 -26.6464  255 255 255
52.2418 -20.8518 -13.1733  255 255 255
-52.6008 -2.38172 -17.2282  255 255 255
-10.0322 -13.1769 33.9272  255 255 255
53.1928 -21.5567 -12.5562  255 255 255
-27.6284 -9.39056 16.2277  255 255 255
-18.8487 -11.6408 25.9254  255 255 255
-51.1962 -3.2396 -24.6561  255 255 255
-27.6 -10.0646 16.7881  255 255 255
4.88706 -17.0556 35.1651  255 255 255
-34.9577 -7.44682 -22.0774  255 255 255
-41.318 -6.382 -20.2572  255 255 255
-38.463 -6.93243 -21.4793  255 255 255
51.9472 -23.8689 -10.4484  255 255 255
23.621 -20.7563 24.6508  255 255 255
70.0341 -28.5216 17.2937  255 255 255
-49.6159 -6.06123 -21.5587  255 255 255
54.0742 -25.1772 -8.41023  255 255 255
65.1076 -27.8048 6.80287  255 255 255
-58.2266 -4.92416 -23.1091  255 255 255
69.9124 -29.3053 16.6337  255 255 255
70.4419 -29.6919 17.1747  255 255 255
65.1289 -28.4254 1.66463  255 255 255
-41.8395 -8.74413 -18.8597  255 255 255
54.3788 -26.4713 -8.04885  255 255 255
4.66033 -19.1601 34.9557  255 255 255
-42.4604 -9.23026 -18.9759  255 255 255
-8.99322 -16.7679 34.1411  255 255 255
0.895354 -18.6306 35.9196  255 255 255
15.255 -21.1593 30.4684  255 255 255
-44.0097 -9.12902 -19.2234  255 255 255
-15.0811 -16.07 30.9122  255 255 255
-44.1249 -9.87394 -17.6945  255 255 255
-38.4761 -11.0493 -16.9116  255 255 255
-49.9069 -9.09947 -18.1527  255 255 255
70.0988 -31.5477 15.132  255 255 255
-48.8459 -9.40026 -17.8516  255 255 255
-51.0464 -9.0409 -18.3438  255 255 255
70.7847 -31.7837 16.2196  255 255 255
-51.2622 -9.35686 -18.0083  255 255 255
22.711 -23.6627 28.2563  255 255 255
48.5951 -27.8763 -5.15093  255 255 255
-39.1629 -12.1743 -15.6299  255 255 255
-21.4963 -16.2795 27.3801  255 255 255
12.9051 -22.7483 32.173  255 255 255
-49.7383 -11.0553 -16.3328  255 255 255
-22.2803 -16.4905 25.9606  255 255 255
69.4085 -33.1903 12.4355  255 255 255
-19.4195 -17.1584 29.06  255 255 255
15.192 -23.5806 30.6312  255 255 255
-2.97524 -20.4087 35.0431  255 255 255
-56.9609 -10.6912 -16.3859  255 255 255
-56.8855 -10.6855 -16.0315  255 255 255
-46.1303 -12.977 -14.535  255 255 255
-45.8712 -13.2136 -14.6741  255 255 255
-42.0762 -14.0094 -13.5136  255 255 255
16.6438 -25.1557 30.5498  255 255 255
-19.8428 -18.4674 29.9126  255 255 255
-26.3647 -17.3455 24.8339  255 255 255
-26.3647 -17.3455 24.8339  255 255 255
-20.4467 -18.4221 28.891  255 255 255
19.6223 -26.0298 31.1352  255 255 255
15.773 -25.3604 30.833  255 255 255
-39.5044 -15.6309 -11.1762  255 255 255
57.9963 -34.1324 -0.524846  255 255 255
16.0303 -26.4196 32.121  255 255 255
13.0279 -26.0393 32.0514  255 255 255
17.4488 -26.9596 32.5248  255 255 255
17.4488 -26.9596 32.5248  255 255 255
-44.3399 -16.5499 -9.86233  255 255 255
-26.4243 -19.1453 27.2455  255 255 255
43.8643 -33.1051 1.23846  255 255 255
-22.5018 -20.251 28.2722  255 255 255
-22.5018 -20.251 28.2722  255 255 255
-16.7889 -21.2373 32.1885  255 255 255
3.48462 -25.0594 35.9365  255 255 255
-15.7562 -21.5362 33.3331  255 255 255
-0.568149 -24.5046 35.7544  255 255 255
-51.2908 -16.4085 -10.2689  255 255 255
-26.6092 -20.1971 26.421  255 255 255
-51.5915 -16.8805 -9.8661  255 255 255
-46.7823 -17.7665 -9.01504  255 255 255
-6.75591 -23.8548 35.6707  255 255 255
15.0882 -28.0669 33.7998  255 255 255
-0.325734 -25.1462 36.4942  255 255 255
-5.32473 -24.2606 35.9291  255 255 255
15.3711 -28.4858 34.1133  255 255 255
-26.4173 -20.9512 26.3343  255 255 255
4.10686 -26.3741 36.1327  255 255 255
-26.6902 -20.9607 25.7955  255 255 255
16.4235 -28.9561 34.847  255 255 255
60.6699 -38.557 6.94213  255 255 255
10.0364 -28.1756 34.5795  255 255 255
-18.509 -22.8946 31.2892  255 255 255
-13.9273 -23.6924 34.0549  255 255 255
-18.0574 -23.2605 31.4861  255 255 255
9.3459 -28.3507 34.7893  255 255 255
-55.7536 -18.5237 -7.77539  255 255 255
-50.4277 -19.7451 -7.07479  255 255 255
-18.27 -23.9099 31.9713  255 255 255
-47.3769 -20.5076 -6.13059  255 255 255
61.8698 -40.9272 9.4548  255 255 255
-60.327 -18.4659 -7.8374  255 255 255
-45.8022 -21.2186 -5.48  255 255 255
47.6454 -38.5779 6.64854  255 255 255
-59.6281 -18.8168 -7.48641  255 255 255
8.85345 -29.481 36.1785  255 255 255
-24.2138 -23.4317 32.104  255 255 255
-62.666 -18.9124 -7.0547  255 255 255
-55.1749 -20.3774 -5.47921  255 255 255
7.39806 -29.8273 36.3555  255 255 255
-33.5877 -24.0037 8.99777  255 255 255
-66.3527 -18.7963 -5.20256  255 255 255
-56.1719 -20.9382 -5.64181  255 255 255
53.8527 -41.8997 7.96894  255 255 255
-46.1703 -23.9232 -2.02388  255 255 255
5.81705 -31.0517 37.9064  255 255 255
-52.961 -22.9342 -3.09108  255 255 255
-14.0533 -27.5722 36.083  255 255 255
-50.5111 -23.6736 -2.38729  255 255 255
-56.7419 -22.7732 -3.08427  255 255 255
-68.4866 -20.9345 -4.5313  255 255 255
33.3927 -39.6065 10.8268  255 255 255
-53.6882 -24.2007 -1.21228  255 255 255
-16.0464 -28.4074 35.6748  255 255 255
-10.4514 -29.3625 37.5154  255 255 255
-52.5406 -24.8427 -1.02503  255 255 255
-13.7764 -28.925 36.9959  255 255 255
-2.74546 -30.9369 38.7811  255 255 255
-2.74546 -30.9369 38.7811  255 255 255
0.0174146 -31.4802 38.6418  255 255 255
-15.0141 -28.6842 37.1562  255 255 255
-26.3328 -28.066 22.259  255 255 255
-13.6472 -29.193 36.9217  255 255 255
2.8967 -32.6036 37.4005  255 255 255
-66.2963 -22.9519 -2.52882  255 255 255
-54.5918 -25.5345 -0.148633  255 255 255
-65.7857 -23.6794 -2.03237  255 255 255
-66.076 -23.8038 -2.02487  255 255 255
-76.7342 -22.3471 -2.73241  255 255 255
-54.6532 -26.2273 0.835972  255 255 255
-56.4191 -26.0598 0.553178  255 255 255
-0.154002 -33.6967 36.67  255 255 255
-48.6765 -28.1795 3.26353  255 255 255
41.8056 -45.1409 14.9375  255 255 255
-42.8059 -29.7321 4.55928  255 255 255
16.712 -39.2852 25.035  255 255 255
41.345 -45.7978 15.8586  255 255 255
44.2489 -46.4783 16.3384  255 255 255
